-2.059617191553115845e-01 -2.214109152555465698e-02 1.418377012014389038e-01
-2.509931027889251709e-01 -4.380884394049644470e-02 9.262824803590774536e-02
-2.965574860572814941e-01 -6.584849208593368530e-02 8.549225330352783203e-02
-3.418968617916107178e-01 -7.055565714836120605e-02 9.494695067405700684e-02
-3.778828978538513184e-01 -7.907279580831527710e-02 9.601018577814102173e-02
-3.286527991294860840e-01 -7.528540492057800293e-02 1.462619155645370483e-01
-3.479580879211425781e-01 -1.198259666562080383e-01 1.856305301189422607e-01
-3.670241236686706543e-01 -1.402331292629241943e-01 2.049617469310760498e-01
-4.122049212455749512e-01 -1.355879753828048706e-01 1.984480023384094238e-01
-3.273731470108032227e-01 -7.112561166286468506e-02 1.630396246910095215e-01
-3.778739273548126221e-01 -9.315703809261322021e-02 1.937848031520843506e-01
-3.908090889453887939e-01 -1.025358587503433228e-01 2.181554138660430908e-01
-4.354161322116851807e-01 -9.505915641784667969e-02 2.066259831190109253e-01
-3.155529499053955078e-01 -6.383442878723144531e-02 1.692705601453781128e-01
-3.802215456962585449e-01 -7.029800862073898315e-02 1.885060071945190430e-01
-4.022549390792846680e-01 -6.929325312376022339e-02 2.014131695032119751e-01
-4.172698557376861572e-01 -6.549533456563949585e-02 2.070592194795608521e-01
-2.969873845577239990e-01 -3.149560466408729553e-02 1.745254546403884888e-01
-3.609359264373779297e-01 -2.344018779695034027e-02 1.740306168794631958e-01
-3.964319527149200439e-01 -1.559013035148382187e-02 1.731449812650680542e-01
-4.211377799510955811e-01 -1.101056486368179321e-02 1.789835393428802490e-01
-3.153009712696075439e-01 -5.002161953598260880e-03 -6.859534978866577148e-02
-3.108469545841217041e-01 -4.322561994194984436e-02 -3.992705792188644409e-02
-3.566674292087554932e-01 -8.788520097732543945e-02 -2.012996189296245575e-02
-4.069069921970367432e-01 -1.115821674466133118e-01 -9.959930554032325745e-03
-4.440025091171264648e-01 -1.013445258140563965e-01 -2.009062096476554871e-03
-4.274928569793701172e-01 -9.397067874670028687e-02 -9.642750769853591919e-02
-4.911085069179534912e-01 -1.097743660211563110e-01 -9.310862421989440918e-02
-5.348077416419982910e-01 -1.056448444724082947e-01 -8.296179771423339844e-02
-5.640763640403747559e-01 -1.123259514570236206e-01 -7.108055800199508667e-02
-4.417902231216430664e-01 -6.727124750614166260e-02 -1.155987903475761414e-01
-5.269090533256530762e-01 -8.259167522192001343e-02 -1.238974705338478088e-01
-5.720766782760620117e-01 -8.805231750011444092e-02 -1.080698892474174500e-01
-5.967999696731567383e-01 -8.883196860551834106e-02 -8.592905849218368530e-02
-4.471225142478942871e-01 -3.955227509140968323e-02 -1.166405081748962402e-01
-5.209429264068603516e-01 -5.145144462585449219e-02 -1.243198364973068237e-01
-5.659320950508117676e-01 -5.244276672601699829e-02 -1.133620291948318481e-01
-5.933189392089843750e-01 -5.035497620701789856e-02 -9.274313598871231079e-02
-4.394906163215637207e-01 -1.077628135681152344e-02 -1.075553074479103088e-01
-5.048447847366333008e-01 -9.700914844870567322e-03 -1.154430657625198364e-01
-5.423220992088317871e-01 -6.467627827078104019e-03 -1.177090704441070557e-01
-5.706610083580017090e-01 -5.723269190639257431e-03 -1.177988499402999878e-01
